-14.778081893920898 -22.379158020019531 25.329986572265625 115 81 42
-14.970149993896484 -22.437236785888672 25.329986572265625 136 98 52
-15.970149993896484 -22.532346725463867 24.329986572265625 86 48 19
-6.8381567001342773 -22.879158020019531 29.329986572265625 55 39 20
-6.9701499938964844 -23.08241081237793 29.829986572265625 44 28 13
-7.4701499938964844 -23.107040405273438 30.329986572265625 60 37 16
-7.9701499938964844 -22.879158020019531 30.716867446899414 68 41 17
-8.4701499938964844 -22.379158020019531 30.779062271118164 102 72 38
-12.470149993896484 -21.036392211914062 26.829986572265625 70 44 20
-11.970149993896484 -21.023330688476562 27.329986572265625 56 36 15
-11.470149993896484 -21.229337692260742 27.829986572265625 48 28 12
-11.470149993896484 -21.618276596069336 28.329986572265625 56 34 14
-11.470149993896484 -21.379158020019531 28.083932876586914 52 34 14
-11.207548141479492 -21.879158020019531 28.829986572265625 62 39 16
-11.016709327697754 -22.379158020019531 29.329986572265625 61 37 14
-10.567339897155762 -22.379158020019531 29.829986572265625 78 52 24
-10.970149993896484 -22.379158020019531 29.396720886230469 65 39 16
-10.470149993896484 -22.379158020019531 29.914218902587891 80 55 28
-9.5915870666503906 -21.879158020019531 30.329986572265625 102 71 38
-9.9701499938964844 -21.879158020019531 30.085248947143555 102 70 36
-8.9701499938964844 -21.879158020019531 30.464006423950195 99 70 32
-9.4701499938964844 -21.879158020019531 30.393589019775391 106 77 39
-12.970149993896484 -20.976612091064453 26.329986572265625 75 54 21
-13.269696235656738 -20.879158020019531 25.829986572265625 60 37 16
-13.470149993896484 -20.879158020019531 25.609609603881836 58 36 16
-13.970149993896484 -20.962100982666016 25.329986572265625 58 39 20
-14.217523574829102 -21.379158020019531 25.329986572265625 59 41 20
-14.470149993896484 -21.879158020019531 25.64470100402832 108 77 39
-15.966509819030762 -22.379158020019531 24.829986572265625 99 62 26
-15.970149993896484 -22.379158020019531 24.822414398193359 99 62 26
-15.470149993896484 -22.417556762695313 25.329986572265625 135 96 52
-14.970149993896484 -22.379158020019531 25.389093399047852 129 94 51
-16.189785003662109 -22.379158020019531 24.329986572265625 106 69 35
-16.181129455566406 -22.379158020019531 23.829986572265625 105 62 27
-6.6350069046020508 -22.379158020019531 28.829986572265625 41 26 9
-6.6195392608642578 -22.379158020019531 29.329986572265625 49 35 19
-6.4701499938964844 -22.879158020019531 29.702436447143555 51 38 21
-6.4701499938964844 -22.988367080688477 29.829986572265625 61 41 20
-6.9701499938964844 -23.08537483215332 30.329986572265625 52 33 16
-7.7190690040588379 -22.879158020019531 30.829986572265625 72 42 18
-7.4701499938964844 -22.916713714599609 30.829986572265625 68 41 18
-8.4225568771362305 -22.379158020019531 30.829986572265625 98 69 36
-7.9701499938964844 -22.8206787109375 30.829986572265625 70 42 18
-8.5116376876831055 -21.879158020019531 30.829986572265625 112 80 38
-8.4701499938964844 -22.096656799316406 30.829986572265625 111 84 45
-12.586583137512207 -20.879158020019531 26.829986572265625 60 38 16
-12.970149993896484 -20.879158020019531 26.378458023071289 63 43 17
-12.150308609008789 -20.879158020019531 27.329986572265625 49 29 10
-12.470149993896484 -20.879158020019531 26.963228225708008 62 38 17
-11.869422912597656 -20.879158020019531 27.829986572265625 48 29 12
-11.970149993896484 -20.879158020019531 27.597162246704102 44 24 10
-11.662830352783203 -21.379158020019531 28.329986572265625 54 32 12
-11.470149993896484 -21.714601516723633 28.829986572265625 60 36 16
-11.461704254150391 -21.879158020019531 29.329986572265625 74 48 21
-10.711222648620605 -21.879158020019531 29.829986572265625 96 65 36
-10.970149993896484 -21.879158020019531 29.698020935058594 87 63 35
-10.470149993896484 -21.879158020019531 29.923311233520508 85 60 32
-9.4701499938964844 -21.685115814208984 30.329986572265625 103 72 38
-9.4701499938964844 -21.379158020019531 30.203475952148438 106 75 39
-9.9701499938964844 -21.379158020019531 29.97413444519043 91 62 28
-9.1594734191894531 -21.379158020019531 30.329986572265625 108 78 46
-8.9701499938964844 -21.379158020019531 30.400789260864258 105 76 46
-13.005382537841797 -20.879158020019531 26.329986572265625 66 48 22
-13.470149993896484 -20.716808319091797 25.829986572265625 67 43 20
-13.970149993896484 -20.879158020019531 25.402368545532227 57 38 17
-14.470149993896484 -21.379158020019531 25.624839782714844 75 51 26
-14.970149993896484 -21.879158020019531 25.597799301147461 121 86 47
-15.970149993896484 -22.374889373779297 24.829986572265625 99 62 26
-15.53990364074707 -22.379158020019531 25.329986572265625 123 91 49
-15.470149993896484 -22.379158020019531 25.364612579345703 137 98 54
-16.42352294921875 -21.879158020019531 23.829986572265625 74 50 24
-16.369504928588867 -21.879158020019531 24.329986572265625 96 66 32
-6.4701499938964844 -22.199954986572266 29.329986572265625 0 0 0
-6.4701499938964844 -22.262111663818359 28.829986572265625 0 0 0
-6.4701499938964844 -22.379158020019531 29.551427841186523 0 0 0
-6.3100471496582031 -22.879158020019531 29.829986572265625 54 33 17
-6.4701499938964844 -23.020393371582031 30.329986572265625 36 22 11
-6.9701499938964844 -23.161899566650391 30.829986572265625 47 28 12
-7.4701499938964844 -22.938240051269531 31.329986572265625 81 52 26
-7.5696372985839844 -22.879158020019531 31.329986572265625 83 56 28
-7.9701499938964844 -22.379158020019531 31.250347137451172 108 76 36
-8.4701499938964844 -21.725217819213867 30.829986572265625 112 79 40
-8.4701499938964844 -21.379158020019531 30.749162673950195 110 78 37
-8.4701499938964844 -21.879158020019531 30.865180969238281 106 76 37
-12.970149993896484 -20.468601226806641 26.829986572265625 64 40 16
-12.459752082824707 -20.379158020019531 27.329986572265625 54 32 14
-12.470149993896484 -20.379158020019531 27.314901351928711 54 33 14
-11.970149993896484 -20.739250183105469 27.829986572265625 46 27 12
-11.970149993896484 -21.064498901367188 28.329986572265625 63 40 21
-11.970149993896484 -20.879158020019531 28.026546478271484 48 28 12
-11.892108917236328 -21.379158020019531 28.829986572265625 64 41 20
-11.470149993896484 -21.579639434814453 29.329986572265625 78 50 22
-10.470149993896484 -21.536142349243164 29.829986572265625 88 58 25
-10.470149993896484 -21.379158020019531 29.782501220703125 88 59 27
-10.970149993896484 -21.379158020019531 29.61952018737793 98 67 32
-10.351064682006836 -21.379158020019531 29.829986572265625 89 58 26
-9.9350156784057617 -20.879158020019531 29.829986572265625 89 53 25
-9.9701499938964844 -20.91377067565918 29.829986572265625 86 53 23
-9.4701499938964844 -20.879158020019531 30.00434684753418 135 115 80
-8.9701499938964844 -21.045562744140625 30.329986572265625 139 110 70
-13.470149993896484 -20.448116302490234 26.329986572265625 69 45 19
-13.891061782836914 -20.379158020019531 25.829986572265625 70 43 19
-13.970149993896484 -20.379158020019531 25.748416900634766 66 41 18
-14.470149993896484 -20.879158020019531 25.397924423217773 59 39 22
-14.970149993896484 -21.379158020019531 25.584047317504883 108 73 32
-15.470149993896484 -21.879158020019531 25.499662399291992 133 104 53
-16.276027679443359 -21.879158020019531 24.829986572265625 135 96 53
-15.81596851348877 -21.879158020019531 25.329986572265625 171 130 87
-15.970149993896484 -21.879158020019531 25.220560073852539 130 91 47
-16.470149993896484 -21.787775039672852 23.829986572265625 76 49 25
-16.351974487304687 -21.379158020019531 24.329986572265625 83 57 28
-16.470149993896484 -21.379158020019531 24.165075302124023 90 63 32
-16.470149993896484 -21.879158020019531 23.752212524414063 71 45 21
-5.9701499938964844 -22.276050567626953 28.829986572265625 0 0 0
-5.9701499938964844 -22.148235321044922 29.329986572265625 0 0 0
-6.1052513122558594 -22.379158020019531 29.829986572265625 0 0 0
-5.9701499938964844 -22.879158020019531 30.302263259887695 51 35 15
-5.9701499938964844 -22.89457893371582 30.329986572265625 0 0 0
-6.4701499938964844 -23.209915161132812 30.829986572265625 42 30 16
-6.9701499938964844 -22.936609268188477 31.329986572265625 83 56 27
-7.8167219161987305 -22.379158020019531 31.329986572265625 117 84 43
-7.4701499938964844 -22.879158020019531 31.391319274902344 84 58 32
-8.0181121826171875 -21.879158020019531 31.329986572265625 119 86 44
-7.9701499938964844 -22.066471099853516 31.329986572265625 126 90 46
-8.3819332122802734 -21.379158020019531 30.829986572265625 93 63 30
-8.9236345291137695 -20.879158020019531 30.329986572265625 110 78 50
-8.4701499938964844 -20.879158020019531 30.741378784179688 85 59 28
-13.075725555419922 -20.379158020019531 26.829986572265625 65 40 17
-13.470149993896484 -20.379158020019531 26.438858032226562 69 44 17
-12.970149993896484 -20.379158020019531 26.943416595458984 67 41 18
-12.470149993896484 -20.357738494873047 27.329986572265625 54 32 14
-12.342584609985352 -20.379158020019531 27.829986572265625 68 45 21
-12.115729331970215 -20.879158020019531 28.329986572265625 58 34 15
-11.961846351623535 -20.879158020019531 28.829986572265625 67 42 21
-11.970149993896484 -20.879158020019531 28.8138427734375 66 42 21
-11.477800369262695 -21.379158020019531 29.329986572265625 78 50 24
-11.470149993896484 -21.379158020019531 29.334434509277344 83 57 31
-10.913653373718262 -20.879158020019531 29.329986572265625 90 62 27
-10.970149993896484 -20.937997817993164 29.329986572265625 89 62 29
-10.470149993896484 -20.879158020019531 29.662561416625977 81 54 25
-8.9701499938964844 -20.879158020019531 30.297269821166992 123 95 68
-9.4701499938964844 -20.439409255981445 29.829986572265625 108 83 35
-9.9701499938964844 -20.879158020019531 29.81971549987793 83 50 23
-13.53861141204834 -20.379158020019531 26.329986572265625 70 45 19
-13.970149993896484 -20.275615692138672 25.829986572265625 73 47 21
-14.470149993896484 -20.379158020019531 25.418403625488281 62 38 19
-14.970149993896484 -20.879158020019531 25.416421890258789 63 41 19
-15.470149993896484 -21.379158020019531 25.375802993774414 107 75 35
-16.143619537353516 -21.379158020019531 24.829986572265625 105 73 32
-15.543482780456543 -21.379158020019531 25.329986572265625 112 79 37
-15.970149993896484 -21.379158020019531 25.022367477416992 106 74 34
-16.159950256347656 -20.879158020019531 24.329986572265625 103 77 50
-16.470149993896484 -20.879158020019531 24.147354125976563 85 58 26
-16.933574676513672 -21.379158020019531 23.829986572265625 120 86 48
-16.934383392333984 -21.879158020019531 23.329986572265625 147 87 43
-5.7898659706115723 -21.879158020019531 28.829986572265625 0 0 0
-5.4701499938964844 -21.879158020019531 29.110881805419922 0 0 0
-5.4701499938964844 -22.231555938720703 29.329986572265625 0 0 0
-5.9701499938964844 -22.247871398925781 29.829986572265625 0 0 0
-5.9701499938964844 -22.379158020019531 29.915630340576172 0 0 0
-5.4701499938964844 -22.879158020019531 30.200078964233398 0 0 0
-5.4701499938964844 -23.026727676391602 30.329986572265625 54 34 16
-5.9701499938964844 -23.321292877197266 30.829986572265625 30 20 10
-6.4701499938964844 -22.988809585571289 31.329986572265625 81 56 32
-6.9701499938964844 -22.879158020019531 31.363138198852539 80 54 26
-7.4701499938964844 -22.379158020019531 31.463027954101563 136 104 62
-7.9701499938964844 -21.688552856445313 31.329986572265625 106 76 41
-7.9701499938964844 -21.379158020019531 31.240915298461914 97 72 49
-7.9701499938964844 -21.879158020019531 31.372348785400391 123 88 44
-8.3889789581298828 -20.879158020019531 30.829986572265625 87 63 33
-8.9701499938964844 -20.667802810668945 30.329986572265625 94 69 36
-8.7862186431884766 -20.379158020019531 30.829986572265625 119 89 50
-8.9701499938964844 -20.379158020019531 30.418279647827148 110 81 46
-8.4701499938964844 -20.798660278320312 30.829986572265625 83 61 32
-13.442914962768555 -19.879158020019531 26.829986572265625 79 55 28
-13.470149993896484 -19.879158020019531 26.798860549926758 81 57 27
-12.862429618835449 -19.879158020019531 27.329986572265625 76 49 24
-12.970149993896484 -19.879158020019531 27.254150390625 77 52 24
-12.291739463806152 -19.879158020019531 27.829986572265625 68 47 22
-12.470149993896484 -19.879158020019531 27.585954666137695 69 47 22
-12.097107887268066 -20.379158020019531 28.329986572265625 63 39 17
-11.673858642578125 -20.379158020019531 28.829986572265625 73 49 24
-11.970149993896484 -20.379158020019531 28.556186676025391 64 40 19
-11.470149993896484 -21.372686386108398 29.329986572265625 83 56 29
-11.470149993896484 -20.879158020019531 29.100709915161133 73 48 21
-10.470149993896484 -20.379158020019531 29.447208404541016 71 46 23
-10.602792739868164 -20.379158020019531 29.329986572265625 76 47 24
-10.970149993896484 -20.879158020019531 29.286310195922852 89 62 28
-9.4452390670776367 -20.379158020019531 29.829986572265625 97 70 36
-9.0245866775512695 -20.379158020019531 30.329986572265625 107 80 43
-9.4701499938964844 -20.379158020019531 29.807052612304687 100 72 33
-9.9701499938964844 -20.379158020019531 29.703754425048828 87 58 27
-13.817917823791504 -19.879158020019531 26.329986572265625 76 49 22
-13.970149993896484 -19.879158020019531 26.141534805297852 74 47 24
-14.215519905090332 -19.879158020019531 25.829986572265625 89 60 35
-14.470149993896484 -19.879158020019531 25.499477386474609 68 47 26
-14.658856391906738 -20.379158020019531 25.329986572265625 68 45 25
-14.970149993896484 -20.681058883666992 25.329986572265625 83 61 42
-15.14216136932373 -20.879158020019531 25.329986572265625 68 37 14
-15.470149993896484 -21.280368804931641 25.329986572265625 107 77 37
-15.970149993896484 -21.050582885742188 24.829986572265625 99 70 36
-15.970149993896484 -20.879158020019531 24.623245239257813 88 64 36
-15.839309692382813 -20.879158020019531 24.829986572265625 98 69 38
-15.470149993896484 -20.879158020019531 25.114360809326172 86 57 24
-15.970149993896484 -20.649688720703125 24.329986572265625 84 58 34
-15.970149993896484 -20.379158020019531 24.137218475341797 72 49 23
-16.470149993896484 -20.379158020019531 23.958356857299805 85 56 25
-16.970149993896484 -21.340616226196289 23.829986572265625 124 88 48
-16.970149993896484 -20.879158020019531 24.050333023071289 120 85 43
-16.970149993896484 -21.845584869384766 23.329986572265625 135 81 37
-16.970149993896484 -21.379158020019531 23.801359176635742 120 86 47
-16.970149993896484 -21.879158020019531 23.303005218505859 145 86 41
-5.4701499938964844 -21.630439758300781 28.829986572265625 0 0 0
-5.4701499938964844 -22.187362670898438 29.829986572265625 0 0 0
-5.4701499938964844 -22.379158020019531 29.992931365966797 0 0 0
-5.1266422271728516 -22.879158020019531 30.329986572265625 51 37 19
-5.4701499938964844 -23.004119873046875 30.829986572265625 43 29 13
-5.9701499938964844 -23.134553909301758 31.329986572265625 89 58 31
-6.4701499938964844 -22.879158020019531 31.401643753051758 88 60 32
-6.9701499938964844 -22.379158020019531 31.44127082824707 111 78 40
-7.4701499938964844 -21.879158020019531 31.466476440429688 113 77 36
-7.8017544746398926 -21.379158020019531 31.329986572265625 98 69 34
-7.9701499938964844 -21.216882705688477 31.329986572265625 91 65 36
-8.21063232421875 -20.879158020019531 31.329986572265625 89 68 38
-8.8950691223144531 -19.879158020019531 30.329986572265625 132 101 56
-8.9701499938964844 -20.204147338867188 30.329986572265625 136 107 68
-8.6347942352294922 -19.879158020019531 30.829986572265625 139 110 60
-8.4701499938964844 -20.652751922607422 31.329986572265625 103 71 35
-8.7189722061157227 -20.379158020019531 31.329986572265625 131 98 50
-13.470149993896484 -19.802621841430664 26.829986572265625 80 56 26
-12.844759941101074 -19.379158020019531 27.329986572265625 86 60 37
-12.970149993896484 -19.379158020019531 27.254238128662109 80 57 31
-12.292740821838379 -19.379158020019531 27.829986572265625 63 43 22
-12.470149993896484 -19.379158020019531 27.632406234741211 63 41 19
-12.180612564086914 -19.879158020019531 28.329986572265625 51 32 14
-11.505344390869141 -19.879158020019531 28.829986572265625 38 19 6
-11.970149993896484 -19.879158020019531 28.64903450012207 29 13 4
-11.470149993896484 -20.379158020019531 28.926395416259766 71 48 24
-10.470149993896484 -20.209232330322266 29.329986572265625 84 57 27
-10.970149993896484 -20.379158020019531 28.958389282226563 65 41 17
-8.9701499938964844 -19.879158020019531 30.188079833984375 124 95 51
-9.2233257293701172 -19.879158020019531 29.829986572265625 138 118 69
-9.9601278305053711 -19.879158020019531 29.329986572265625 92 63 32
-9.9701499938964844 -19.882707595825195 29.329986572265625 96 66 34
-9.4701499938964844 -19.879158020019531 29.523075103759766 95 66 32
-13.970149993896484 -19.600736618041992 26.329986572265625 90 71 37
-14.427219390869141 -19.379158020019531 25.829986572265625 95 75 54
-14.470149993896484 -19.379158020019531 25.668783187866211 72 49 28
-14.610918998718262 -19.879158020019531 25.329986572265625 83 61 40
-14.970149993896484 -20.379158020019531 25.160533905029297 80 58 32
-15.470149993896484 -20.425600051879883 24.829986572265625 76 49 25
-15.790091514587402 -20.379158020019531 24.329986572265625 74 52 28
-16.118265151977539 -19.879158020019531 23.829986572265625 82 60 35
-16.470149993896484 -20.205192565917969 23.829986572265625 79 52 23
-15.970149993896484 -19.879158020019531 23.941934585571289 100 74 52
-16.970149993896484 -20.379158020019531 23.980636596679688 98 64 27
-17.308961868286133 -20.879158020019531 23.829986572265625 151 109 61
-17.428464889526367 -21.379158020019531 23.329986572265625 85 52 20
-5.1864542961120605 -21.879158020019531 28.829986572265625 0 0 0
-5.4909224510192871 -21.879158020019531 28.329986572265625 5 3 2
-5.4701499938964844 -21.870384216308594 28.329986572265625 7 5 3
-5.179203987121582 -22.379158020019531 29.829986572265625 0 0 0
-5.1785368919372559 -22.379158020019531 29.329986572265625 0 0 0
-4.9701499938964844 -22.616453170776367 29.829986572265625 0 0 0
-4.9701499938964844 -22.785432815551758 30.329986572265625 48 33 15
-4.9701499938964844 -22.879158020019531 30.585521697998047 0 0 0
-4.9701499938964844 -22.959453582763672 30.829986572265625 50 36 21
-5.4701499938964844 -22.976686477661133 31.329986572265625 79 55 31
-5.9701499938964844 -22.879158020019531 31.478630065917969 118 97 67
-6.4701499938964844 -22.379158020019531 31.435005187988281 107 75 36
-6.9701499938964844 -21.879158020019531 31.471961975097656 106 69 33
-7.4701499938964844 -21.379158020019531 31.425409317016602 84 55 26
-7.9701499938964844 -20.900060653686523 31.829986572265625 100 72 42
-8.0030717849731445 -20.879158020019531 31.829986572265625 96 71 41
-8.5868101119995117 -19.379158020019531 30.329986572265625 101 71 37
-8.5126008987426758 -19.379158020019531 30.829986572265625 80 54 26
-8.8959627151489258 -19.879158020019531 31.329986572265625 129 97 54
-8.4701499938964844 -20.568492889404297 31.829986572265625 117 85 44
-8.6367950439453125 -20.379158020019531 31.829986572265625 126 94 54
-13.587547302246094 -19.379158020019531 26.829986572265625 87 62 35
-13.970149993896484 -19.379158020019531 26.442697525024414 79 56 29
-13.470149993896484 -19.379158020019531 26.956192016601563 93 69 41
-12.970149993896484 -18.950763702392578 27.329986572265625 65 45 26
-12.431962966918945 -18.879158020019531 27.829986572265625 36 27 15
-12.470149993896484 -18.879158020019531 27.753658294677734 46 29 13
-12.019775390625 -19.379158020019531 28.329986572265625 29 14 5
-11.885622978210449 -19.379158020019531 28.829986572265625 42 25 14
-11.970149993896484 -19.379158020019531 28.608634948730469 38 22 11
-11.470149993896484 -19.879158020019531 28.835298538208008 35 18 7
-10.560025215148926 -19.879158020019531 28.829986572265625 75 50 23
-10.470149993896484 -19.879158020019531 28.913772583007813 78 53 24
-10.970149993896484 -20.204610824584961 28.829986572265625 58 32 11
-8.9701499938964844 -19.454002380371094 29.829986572265625 109 81 45
-9.4701499938964844 -19.688837051391602 29.329986572265625 108 80 42
-9.9701499938964844 -19.879158020019531 29.325662612915039 96 66 34
-14.101768493652344 -19.379158020019531 26.329986572265625 81 60 30
-14.435941696166992 -18.879158020019531 25.329986572265625 75 47 19
-14.470149993896484 -19.019809722900391 25.329986572265625 84 55 24
-14.390397071838379 -18.879158020019531 25.829986572265625 57 34 14
-14.570768356323242 -19.379158020019531 25.329986572265625 86 61 34
-14.970149993896484 -19.879158020019531 24.97014045715332 96 72 47
-15.430294036865234 -20.379158020019531 24.829986572265625 76 50 26
-15.470149993896484 -20.379158020019531 24.785680770874023 76 51 26
-15.542929649353027 -19.879158020019531 24.329986572265625 89 62 35
-15.970149993896484 -19.605892181396484 23.829986572265625 93 65 34
-16.970149993896484 -20.152175903320313 23.829986572265625 82 52 23
-16.470149993896484 -19.879158020019531 23.574735641479492 46 28 12
-17.333154678344727 -20.379158020019531 23.829986572265625 95 61 24
-17.470149993896484 -21.336551666259766 23.329986572265625 89 55 22
-17.470149993896484 -20.879158020019531 23.699184417724609 139 103 53
-17.470149993896484 -21.379158020019531 23.295814514160156 89 53 20
-5.462531566619873 -21.879158020019531 28.329986572265625 1 1 0
-4.9701499938964844 -22.52436637878418 29.329986572265625 0 0 0
-4.4701499938964844 -22.555135726928711 29.829986572265625 71 53 28
-4.4701499938964844 -22.527919769287109 30.329986572265625 0 0 0
-4.4701499938964844 -22.879158020019531 30.655107498168945 0 0 0
-4.4701499938964844 -23.029363632202148 30.829986572265625 45 30 15
-4.9701499938964844 -22.909223556518555 31.329986572265625 52 35 17
-5.4701499938964844 -22.879158020019531 31.399234771728516 86 60 31
-5.9701499938964844 -22.379158020019531 31.485292434692383 100 67 31
-6.4701499938964844 -21.879158020019531 31.553865432739258 124 86 45
-6.9701499938964844 -21.379158020019531 31.547082901000977 96 66 35
-7.4701499938964844 -20.921581268310547 31.829986572265625 95 74 47
-7.9701499938964844 -20.879158020019531 31.878385543823242 100 73 42
-8.4701499938964844 -19.351734161376953 30.829986572265625 74 48 23
-8.4701499938964844 -19.258953094482422 30.329986572265625 98 68 39
-8.9222087860107422 -19.379158020019531 29.829986572265625 106 78 46
-8.4701499938964844 -19.391952514648438 31.329986572265625 69 45 18
-8.4701499938964844 -19.379158020019531 31.151538848876953 65 36 13
-8.94232177734375 -19.879158020019531 31.829986572265625 111 84 49
-8.4701499938964844 -20.380016326904297 32.329986572265625 107 81 48
-8.4713144302368164 -20.379158020019531 32.329986572265625 109 83 49
-13.731634140014648 -18.879158020019531 26.829986572265625 69 48 28
-13.970149993896484 -18.879158020019531 26.659538269042969 64 43 24
-12.989481925964355 -18.879158020019531 27.329986572265625 56 38 22
-13.470149993896484 -18.879158020019531 27.009855270385742 66 45 25
-12.970149993896484 -18.879158020019531 27.343118667602539 57 39 23
-12.470149993896484 -18.826417922973633 27.829986572265625 38 23 10
-12.470149993896484 -18.879158020019531 28.129196166992188 44 37 18
-12.470149993896484 -18.909944534301758 28.329986572265625 37 27 19
-11.970149993896484 -19.350728988647461 28.829986572265625 39 22 10
-11.970149993896484 -19.379158020019531 29.038249969482422 43 27 14
-11.922943115234375 -19.379158020019531 29.329986572265625 44 32 20
-11.970149993896484 -19.419971466064453 29.329986572265625 45 28 14
-11.470149993896484 -19.379158020019531 28.963907241821289 136 111 78
-11.451113700866699 -19.879158020019531 28.829986572265625 32 16 7
-10.470149993896484 -19.830301284790039 28.829986572265625 67 46 20
-10.970149993896484 -19.879158020019531 28.660833358764648 53 33 16
-9.1503486633300781 -19.379158020019531 29.329986572265625 108 81 48
-8.9701499938964844 -19.379158020019531 29.710779190063477 111 81 49
-9.7468194961547852 -19.379158020019531 28.829986572265625 109 85 44
-9.4701499938964844 -19.379158020019531 29.018861770629883 138 105 52
-9.9701499938964844 -19.506038665771484 28.829986572265625 80 57 27
-14.282927513122559 -18.879158020019531 26.329986572265625 60 39 24
-14.18946361541748 -18.379158020019531 25.329986572265625 76 48 27
-14.157381057739258 -18.379158020019531 25.829986572265625 77 54 42
-14.470149993896484 -18.879158020019531 25.260396957397461 74 47 19
-14.970149993896484 -19.379158020019531 24.833686828613281 68 43 22
-15.103490829467773 -19.879158020019531 24.829986572265625 107 78 51
-15.470149993896484 -19.879158020019531 24.407331466674805 86 60 32
-15.870845794677734 -19.379158020019531 23.829986572265625 80 54 28
-15.470149993896484 -19.665731430053711 24.329986572265625 82 55 27
-15.470149993896484 -19.379158020019531 24.234243392944336 69 41 19
-15.970149993896484 -19.379158020019531 23.732507705688477 84 57 34
-16.470149993896484 -19.379158020019531 23.352724075317383 63 39 25
-16.970149993896484 -19.879158020019531 23.647769927978516 59 36 16
-17.470149993896484 -20.379158020019531 23.773307800292969 94 61 24
-17.970149993896484 -20.884950637817383 23.329986572265625 117 77 37
-17.970149993896484 -20.879158020019531 23.334945678710938 117 77 37
-17.970149993896484 -21.428476333618164 22.829986572265625 120 72 35
-17.970149993896484 -21.379158020019531 22.870111465454102 118 72 35
-4.4701499938964844 -22.816791534423828 29.329986572265625 17 11 7
-4.372042179107666 -22.379158020019531 29.829986572265625 0 0 0
-4.2465500831604004 -22.379158020019531 30.329986572265625 0 0 0
-4.235358715057373 -22.879158020019531 30.829986572265625 43 28 14
-4.4701499938964844 -22.879158020019531 31.159400939941406 48 35 20
-4.8527002334594727 -22.879158020019531 31.329986572265625 58 43 24
-4.9701499938964844 -22.879158020019531 31.374357223510742 55 38 20
-5.4701499938964844 -22.379158020019531 31.577037811279297 97 70 35
-5.9701499938964844 -21.879158020019531 31.607908248901367 101 69 34
-6.4701499938964844 -21.379158020019531 31.723455429077148 138 112 64
-6.9701499938964844 -20.987062454223633 31.829986572265625 104 82 58
-7.4701499938964844 -20.879158020019531 31.936779022216797 97 76 48
-7.9701499938964844 -20.694129943847656 32.329986572265625 121 102 73
-7.9701499938964844 -18.944847106933594 30.329986572265625 86 58 25
-7.9701499938964844 -19.192602157592773 30.829986572265625 88 59 30
-8.4701499938964844 -18.932083129882812 29.829986572265625 114 95 60
-7.9701499938964844 -19.444616317749023 31.329986572265625 64 41 18
-7.9701499938964844 -19.379158020019531 31.139682769775391 72 43 24
-8.4701499938964844 -19.52839469909668 31.829986572265625 101 68 29
-8.7774419784545898 -19.879158020019531 32.329986572265625 97 76 43
-8.4701499938964844 -20.379158020019531 32.33148193359375 109 83 49
-13.86595630645752 -18.379158020019531 26.829986572265625 48 33 20
-13.970149993896484 -18.379158020019531 26.700313568115234 54 38 21
-13.295331001281738 -18.379158020019531 27.329986572265625 47 29 14
-13.470149993896484 -18.379158020019531 27.168436050415039 62 45 26
-12.970149993896484 -18.510717391967773 27.829986572265625 44 25 12
-12.527675628662109 -18.879158020019531 28.329986572265625 38 27 17
-12.470149993896484 -19.153345108032227 28.829986572265625 49 43 22
-11.470149993896484 -18.90251350402832 29.329986572265625 60 41 22
-11.256481170654297 -19.379158020019531 28.829986572265625 48 33 18
-12.142402648925781 -19.379158020019531 29.329986572265625 71 52 31
-11.970149993896484 -19.379158020019531 29.479427337646484 51 34 17
-10.470149993896484 -19.379158020019531 28.432222366333008 64 43 23
-10.970149993896484 -19.379158020019531 28.524858474731445 49 32 18
-8.9701499938964844 -19.216411590576172 29.329986572265625 120 97 73
-9.4701499938964844 -19.182418823242188 28.829986572265625 120 93 43
-9.9701499938964844 -19.379158020019531 28.715604782104492 75 53 25
-14.171880722045898 -18.379158020019531 26.329986572265625 56 34 17
-13.970149993896484 -18.079998016357422 25.829986572265625 75 53 34
-13.970149993896484 -17.980585098266602 25.329986572265625 116 92 75
-14.400452613830566 -18.379158020019531 24.829986572265625 79 54 39
-14.470149993896484 -18.490409851074219 24.829986572265625 65 39 21
-14.741379737854004 -18.879158020019531 24.829986572265625 94 63 33
-14.970149993896484 -19.372016906738281 24.829986572265625 68 43 22
-14.973084449768066 -19.379158020019531 24.829986572265625 67 43 22
-15.375986099243164 -19.379158020019531 24.329986572265625 66 43 21
-15.470149993896484 -18.879158020019531 24.053153991699219 77 51 26
-15.718049049377441 -18.879158020019531 23.829986572265625 112 85 49
-16.257341384887695 -18.879158020019531 23.329986572265625 67 47 23
-16.470149993896484 -19.307497024536133 23.329986572265625 63 40 24
-15.970149993896484 -18.879158020019531 23.5611572265625 65 40 22
-16.626197814941406 -19.379158020019531 23.329986572265625 57 33 15
-16.970149993896484 -19.439565658569336 23.329986572265625 66 43 21
-17.470149993896484 -19.879158020019531 23.667709350585938 92 59 26
-17.970149993896484 -20.379158020019531 23.635059356689453 90 58 23
-17.985416412353516 -20.879158020019531 23.329986572265625 118 78 39
-18.042680740356445 -21.379158020019531 22.829986572265625 117 70 35
-3.9701499938964844 -22.379158020019531 30.648469924926758 117 79 39
-3.9701499938964844 -22.543838500976562 30.829986572265625 43 30 18
-4.4701499938964844 -22.749710083007813 31.329986572265625 48 35 20
-4.9701499938964844 -22.379158020019531 31.732675552368164 112 86 47
-5.4701499938964844 -21.879158020019531 31.807853698730469 108 72 34
-5.9701499938964844 -21.379158020019531 31.816228866577148 114 81 40
-6.4701499938964844 -21.230663299560547 31.829986572265625 131 106 66
-6.9701499938964844 -20.879158020019531 31.944093704223633 115 94 68
-7.4701499938964844 -20.709613800048828 32.329986572265625 118 92 59
-8.1590595245361328 -20.379158020019531 32.829986572265625 82 56 27
-7.9701499938964844 -20.536128997802734 32.829986572265625 93 66 35
-7.7733469009399414 -18.879158020019531 30.329986572265625 89 62 30
-7.4701499938964844 -19.025924682617188 30.829986572265625 103 71 44
-7.4701499938964844 -18.879158020019531 30.533220291137695 117 84 47
-8.3711299896240234 -18.879158020019531 29.829986572265625 119 100 63
-7.9701499938964844 -18.879158020019531 30.178371429443359 85 56 25
-8.648590087890625 -18.879158020019531 29.329986572265625 171 147 113
-8.4701499938964844 -18.879158020019531 29.713459014892578 140 126 87
-7.650334358215332 -19.379158020019531 31.329986572265625 70 48 27
-7.9701499938964844 -19.379158020019531 31.764261245727539 50 38 16
-8.0192279815673828 -19.379158020019531 31.829986572265625 79 56 29
-8.4701499938964844 -19.638887405395508 32.329986572265625 103 72 41
-8.4701499938964844 -19.975326538085938 32.829986572265625 75 52 25
-8.5870475769042969 -19.879158020019531 32.829986572265625 79 59 36
-13.88155460357666 -17.879158020019531 26.329986572265625 56 35 21
-13.970149993896484 -18.005378723144531 26.329986572265625 58 37 23
-13.733266830444336 -17.879158020019531 26.829986572265625 49 31 15
-13.378682136535645 -17.879158020019531 27.329986572265625 37 19 8
-13.470149993896484 -17.879158020019531 27.193809509277344 40 22 9
-13.161376953125 -18.379158020019531 27.829986572265625 45 28 14
-12.970149993896484 -18.674764633178711 28.329986572265625 46 29 14
-12.970149993896484 -18.879158020019531 28.711954116821289 51 36 19
-12.970149993896484 -18.953756332397461 28.829986572265625 50 33 16
-12.470149993896484 -19.267887115478516 29.329986572265625 84 67 43
-11.453166961669922 -18.879158020019531 29.329986572265625 67 46 26
-11.197444915771484 -18.879158020019531 28.829986572265625 58 42 30
-11.470149993896484 -18.879158020019531 29.381601333618164 62 42 23
-11.640464782714844 -18.879158020019531 29.829986572265625 75 55 28
-11.970149993896484 -19.26472282409668 29.829986572265625 79 60 33
-10.470149993896484 -19.05933952331543 28.329986572265625 58 41 19
-10.593788146972656 -18.879158020019531 28.329986572265625 70 55 32
-10.970149993896484 -18.879158020019531 28.50316047668457 53 37 20
-9.0700998306274414 -18.879158020019531 28.829986572265625 96 72 38
-8.9701499938964844 -18.879158020019531 28.913396835327148 114 87 49
-9.4701499938964844 -18.879158020019531 28.604537963867188 75 50 20
-9.9701499938964844 -18.879158020019531 28.534885406494141 57 38 17
-13.920066833496094 -17.879158020019531 25.329986572265625 93 72 42
-13.851485252380371 -17.879158020019531 25.829986572265625 54 35 20
-13.970149993896484 -17.879158020019531 25.21241569519043 78 57 26
-14.137637138366699 -17.879158020019531 24.829986572265625 85 53 35
-14.470149993896484 -18.379158020019531 24.714986801147461 70 44 26
-14.970149993896484 -18.879158020019531 24.510463714599609 72 45 18
-15.120346069335937 -18.879158020019531 24.329986572265625 75 48 20
-15.470149993896484 -18.379158020019531 23.891807556152344 52 30 16
-15.561714172363281 -18.379158020019531 23.829986572265625 48 29 14
-16.470149993896484 -18.645454406738281 23.329986572265625 51 30 17
-16.470149993896484 -18.379158020019531 23.458778381347656 88 71 37
-15.970149993896484 -18.379158020019531 23.514753341674805 84 56 40
-16.970149993896484 -18.879158020019531 23.377798080444336 112 85 52
-16.970149993896484 -19.148738861083984 23.329986572265625 119 100 77
-16.819452285766602 -18.879158020019531 23.329986572265625 97 67 41
-16.470149993896484 -18.879158020019531 23.218999862670898 47 28 13
-17.055032730102539 -19.379158020019531 23.329986572265625 82 55 31
-17.470149993896484 -19.379158020019531 23.532150268554688 96 68 33
-16.970149993896484 -19.379158020019531 23.291105270385742 75 50 26
-17.970149993896484 -19.879158020019531 23.680013656616211 106 74 37
-18.470149993896484 -20.699625015258789 23.329986572265625 102 65 29
-18.470149993896484 -20.379158020019531 23.544586181640625 94 60 26
-18.470149993896484 -21.180152893066406 22.829986572265625 93 55 21
-18.470149993896484 -20.879158020019531 23.168155670166016 99 64 30
-3.4701499938964844 -22.379158020019531 30.624408721923828 110 71 32
-3.4701499938964844 -22.784402847290039 30.829986572265625 22 16 9
-3.9701499938964844 -21.980476379394531 30.329986572265625 115 76 38
-3.9701499938964844 -22.639242172241211 31.329986572265625 41 32 19
-4.4701499938964844 -22.379158020019531 31.73121452331543 90 62 32
-5.4209208488464355 -21.879158020019531 31.829986572265625 119 79 41
-4.9701499938964844 -22.213293075561523 31.829986572265625 133 105 61
-5.9464497566223145 -21.379158020019531 31.829986572265625 110 77 37
-5.4701499938964844 -21.841836929321289 31.829986572265625 107 72 34
-5.9701499938964844 -21.360429763793945 31.829986572265625 114 81 41
-6.4701499938964844 -20.879158020019531 32.150543212890625 115 93 59
-6.9701499938964844 -20.663673400878906 32.329986572265625 120 99 65
-7.4701499938964844 -20.486648559570312 32.829986572265625 96 75 45
-7.9701499938964844 -20.379158020019531 33.143222808837891 73 49 24
-7.0599217414855957 -18.879158020019531 30.829986572265625 167 134 81
-7.4701499938964844 -18.747442245483398 30.329986572265625 118 83 46
-7.4701499938964844 -19.292829513549805 31.329986572265625 68 48 35
-7.9701499938964844 -18.691972732543945 29.829986572265625 97 66 35
-8.4701499938964844 -18.689329147338867 29.329986572265625 139 113 58
-7.4701499938964844 -19.513959884643555 31.829986572265625 47 30 13
-7.9383163452148437 -19.379158020019531 31.829986572265625 42 32 15
-7.4701499938964844 -19.379158020019531 31.430984497070313 58 38 25
-7.9701499938964844 -19.364830017089844 31.829986572265625 53 38 16
-7.9701499938964844 -19.497297286987305 32.329986572265625 102 73 37
-7.9701499938964844 -19.379158020019531 31.873897552490234 76 54 26
-8.4701499938964844 -19.821294784545898 32.829986572265625 88 60 32
-8.4701499938964844 -19.879158020019531 32.966087341308594 78 52 26
-13.585428237915039 -17.379158020019531 26.329986572265625 56 43 33
-13.473045349121094 -17.379158020019531 26.829986572265625 32 21 14
-13.359328269958496 -17.379158020019531 27.329986572265625 42 24 10
-13.470149993896484 -17.379158020019531 26.838356018066406 32 21 14
-13.387431144714355 -17.879158020019531 27.829986572265625 38 21 10
-13.356601715087891 -18.379158020019531 28.329986572265625 40 24 11
-13.111797332763672 -18.879158020019531 28.829986572265625 54 39 21
-12.970149993896484 -19.026092529296875 29.329986572265625 57 40 19
-12.470149993896484 -19.261119842529297 29.829986572265625 84 65 41
-11.004109382629395 -18.379158020019531 28.829986572265625 66 46 30
-11.301386833190918 -18.379158020019531 29.329986572265625 46 31 17
-11.470149993896484 -18.650112152099609 29.829986572265625 69 49 25
-11.970149993896484 -19.204511642456055 30.329986572265625 81 61 35
-11.620348930358887 -18.879158020019531 30.329986572265625 63 46 27
-10.376583099365234 -18.879158020019531 28.329986572265625 52 32 14
-10.522402763366699 -18.379158020019531 28.329986572265625 55 38 24
-10.970149993896484 -18.379158020019531 28.770845413208008 74 52 32
-10.470149993896484 -18.879158020019531 28.282131195068359 54 36 15
-8.9701499938964844 -18.75285530090332 28.829986572265625 98 73 41
-9.4701499938964844 -18.379158020019531 28.446247100830078 61 39 19
-9.9701499938964844 -18.379158020019531 28.427030563354492 55 33 18
-13.818331718444824 -17.379158020019531 25.329986572265625 45 33 21
-13.70950984954834 -17.379158020019531 25.829986572265625 101 83 70
-13.970149993896484 -17.387361526489258 24.829986572265625 69 56 47
-14.383376121520996 -17.879158020019531 24.329986572265625 110 89 65
-14.470149993896484 -18.03034782409668 24.329986572265625 86 59 54
-14.723822593688965 -18.379158020019531 24.329986572265625 57 33 17
-14.970149993896484 -18.709829330444336 24.329986572265625 65 38 15
-14.970149993896484 -18.379158020019531 24.081563949584961 53 32 15
-15.470149993896484 -18.232669830322266 23.829986572265625 54 33 15
-15.970149993896484 -17.879158020019531 23.602203369140625 112 95 80
-16.470149993896484 -17.879158020019531 23.708269119262695 123 95 54
-16.970149993896484 -18.379158020019531 23.486448287963867 137 102 54
-17.470149993896484 -18.879158020019531 23.441030502319336 103 70 35
-17.970149993896484 -19.379158020019531 23.648471832275391 109 76 38
-18.470149993896484 -19.879158020019531 23.632619857788086 99 66 31
-18.830427169799805 -20.379158020019531 23.329986572265625 95 62 29
-18.835807800292969 -20.879158020019531 22.829986572265625 125 87 51
-3.232372522354126 -22.879158020019531 30.829986572265625 0 0 0
-2.9701499938964844 -22.879158020019531 30.69373893737793 0 0 0
-3.1354007720947266 -22.379158020019531 30.329986572265625 120 85 45
-2.9701499938964844 -22.632484436035156 30.329986572265625 0 0 0
-3.4701499938964844 -21.938213348388672 30.329986572265625 116 76 41
-3.4701499938964844 -22.674770355224609 31.329986572265625 37 30 18
-3.9701499938964844 -22.379158020019531 31.665750503540039 57 41 24
-4.4701499938964844 -22.25347900390625 31.829986572265625 99 69 35
-4.9701499938964844 -21.879158020019531 32.027244567871094 148 115 82
-5.4701499938964844 -21.379158020019531 32.150260925292969 142 103 62
-5.9701499938964844 -20.879158020019531 32.263401031494141 110 83 48
-6.4701499938964844 -20.739578247070313 32.329986572265625 120 96 61
-6.9701499938964844 -20.379158020019531 32.775318145751953 109 87 57
-7.0990986824035645 -20.379158020019531 32.829986572265625 103 79 49
-7.4701499938964844 -20.379158020019531 33.037799835205078 88 64 39
-8.1896486282348633 -19.879158020019531 33.329986572265625 65 44 22
-7.9701499938964844 -20.168733596801758 33.329986572265625 66 43 21
-6.9701499938964844 -18.840488433837891 30.829986572265625 159 126 73
-6.9701499938964844 -18.489603042602539 30.329986572265625 105 80 47
-6.9701499938964844 -19.21375846862793 31.329986572265625 82 61 36
-6.9701499938964844 -18.879158020019531 30.884452819824219 149 115 67
-7.4701499938964844 -18.395904541015625 29.829986572265625 106 80 51
-8.0213727951049805 -18.379158020019531 29.329986572265625 91 66 34
-7.9701499938964844 -18.379158020019531 29.371561050415039 90 64 33
-8.7549333572387695 -18.379158020019531 28.829986572265625 94 69 38
-8.4701499938964844 -18.379158020019531 29.061826705932617 81 56 27
-6.9701499938964844 -19.451074600219727 31.829986572265625 47 32 15
-6.9701499938964844 -19.379158020019531 31.565523147583008 52 35 21
-7.7928838729858398 -19.379158020019531 32.329986572265625 69 44 17
-7.4701499938964844 -19.379158020019531 32.048725128173828 49 33 15
-7.9701499938964844 -19.661706924438477 32.829986572265625 99 73 42
-13.844913482666016 -16.879158020019531 26.329986572265625 62 45 39
-13.720078468322754 -16.879158020019531 26.829986572265625 42 30 23
-13.470149993896484 -17.117708206176758 27.329986572265625 64 34 18
-13.470149993896484 -17.379158020019531 27.819284439086914 45 34 17
-13.470149993896484 -17.393503189086914 27.829986572265625 41 33 14
-13.470149993896484 -17.879158020019531 27.950616836547852 37 23 13
-13.470149993896484 -18.263523101806641 28.329986572265625 39 23 12
-13.470149993896484 -18.749137878417969 28.829986572265625 56 39 20
-13.470149993896484 -18.379158020019531 28.410181045532227 40 26 12
-13.470149993896484 -18.879158020019531 29.157760620117188 61 41 21
-13.470149993896484 -18.964334487915039 29.329986572265625 56 36 17
-12.970149993896484 -19.058389663696289 29.829986572265625 62 44 22
-12.470149993896484 -19.143064498901367 30.329986572265625 67 48 28
-10.970149993896484 -17.879158020019531 28.973222732543945 33 17 10
-10.970149993896484 -18.225564956665039 28.829986572265625 60 40 23
-11.213801383972168 -17.879158020019531 29.329986572265625 30 18 8
-11.363481521606445 -18.379158020019531 29.829986572265625 55 38 18
-11.470149993896484 -18.791280746459961 30.329986572265625 84 61 33
-11.970149993896484 -19.196321487426758 30.829986572265625 62 44 19
-11.624616622924805 -18.879158020019531 30.829986572265625 71 52 29
-10.334381103515625 -18.379158020019531 28.329986572265625 61 46 35
-10.470149993896484 -17.879158020019531 28.425100326538086 67 51 36
-10.853996276855469 -17.879158020019531 28.829986572265625 46 36 24
-10.470149993896484 -18.213190078735352 28.329986572265625 71 54 42
-10.470149993896484 -18.379158020019531 28.296058654785156 62 44 30
-8.9701499938964844 -18.379158020019531 28.666742324829102 107 91 61
-9.4701499938964844 -17.879158020019531 28.589670181274414 81 52 33
-9.9701499938964844 -17.879158020019531 28.530368804931641 56 31 14
-13.832672119140625 -16.879158020019531 25.329986572265625 37 22 14
-13.891891479492187 -16.879158020019531 25.829986572265625 38 25 15
-13.967428207397461 -17.379158020019531 24.829986572265625 36 23 14
-13.970149993896484 -17.379158020019531 24.82261848449707 61 49 38
-14.156664848327637 -17.379158020019531 24.329986572265625 54 35 23
-14.470149993896484 -17.879158020019531 24.189094543457031 97 69 47
-14.970149993896484 -17.884683609008789 23.829986572265625 50 31 17
-15.470149993896484 -17.879158020019531 23.670980453491211 56 35 22
-15.970149993896484 -17.379158020019531 23.746252059936523 89 63 32
-16.470149993896484 -17.379158020019531 23.735321044921875 124 91 47
-16.970149993896484 -17.879158020019531 23.553794860839844 113 83 42
-17.470149993896484 -18.379158020019531 23.408842086791992 124 90 42
-17.970149993896484 -18.879158020019531 23.418684005737305 100 65 34
-18.470149993896484 -19.379158020019531 23.590753555297852 96 67 31
-18.864145278930664 -19.879158020019531 23.329986572265625 121 79 40
-18.882841110229492 -20.379158020019531 22.829986572265625 108 79 41
-18.88951301574707 -20.879158020019531 22.329986572265625 123 90 45
-2.9701499938964844 -22.927633285522461 30.829986572265625 26 20 12
-2.4701499938964844 -22.879158020019531 30.737270355224609 50 42 28
-2.4701499938964844 -22.809322357177734 30.829986572265625 45 36 23
-2.7079269886016846 -22.879158020019531 30.829986572265625 48 38 23
-2.7695081233978271 -22.879158020019531 30.329986572265625 19 15 8
-2.9701499938964844 -22.879158020019531 30.955106735229492 35 28 20
-2.9701499938964844 -22.639518737792969 31.329986572265625 52 37 21
-3.4701499938964844 -22.379158020019531 31.712480545043945 73 53 30
-3.9701499938964844 -22.217872619628906 31.829986572265625 76 53 28
-4.4701499938964844 -21.879158020019531 32.114082336425781 133 99 54
-5.0472884178161621 -21.379158020019531 32.329986572265625 145 106 65
-4.9701499938964844 -21.420572280883789 32.329986572265625 148 108 68
-5.8645768165588379 -20.879158020019531 32.329986572265625 108 79 43
-5.4701499938964844 -21.162511825561523 32.329986572265625 112 84 45
-5.9701499938964844 -20.826665878295898 32.329986572265625 106 79 45
-6.4701499938964844 -20.379158020019531 32.824592590332031 147 132 95
-6.9701499938964844 -20.340999603271484 32.829986572265625 103 80 52
-7.4701499938964844 -20.279077529907227 33.329986572265625 77 53 32
-7.9701499938964844 -19.759649276733398 33.329986572265625 73 50 25
-7.9701499938964844 -19.879158020019531 33.514965057373047 59 37 17
-6.7152409553527832 -18.379158020019531 30.329986572265625 87 67 39
-6.4701499938964844 -18.561176300048828 30.829986572265625 107 79 40
-6.4701499938964844 -18.379158020019531 30.503488540649414 88 64 34
-7.4426498413085937 -18.379158020019531 29.829986572265625 106 81 52
-6.9701499938964844 -18.379158020019531 30.184032440185547 97 75 46
-6.5847568511962891 -18.879158020019531 31.329986572265625 106 80 45
-7.4701499938964844 -18.379158020019531 29.808582305908203 106 81 52
-7.4701499938964844 -19.144994735717773 32.329986572265625 42 27 14
-7.9701499938964844 -18.342073440551758 29.329986572265625 92 66 36
-8.4701499938964844 -17.879158020019531 28.864965438842773 77 49 24
-8.5721607208251953 -17.879158020019531 28.829986572265625 72 45 21
-6.7740650177001953 -19.379158020019531 31.829986572265625 52 36 20
-6.9701499938964844 -19.379158020019531 32.003482818603516 47 34 19
-7.574030876159668 -19.379158020019531 32.829986572265625 75 52 22
-13.970149993896484 -16.612709045410156 26.329986572265625 47 35 30
-13.724730491638184 -16.379158020019531 26.829986572265625 51 34 18
-13.970149993896484 -16.379158020019531 26.490055084228516 50 34 19
-13.591621398925781 -16.879158020019531 27.329986572265625 35 25 17
-13.444735527038574 -16.879158020019531 27.829986572265625 60 44 23
-13.470149993896484 -17.318197250366211 27.829986572265625 47 36 27
-13.470149993896484 -16.879158020019531 27.756374359130859 48 31 14
-13.473432540893555 -17.379158020019531 27.829986572265625 41 32 16
-13.790407180786133 -17.879158020019531 28.329986572265625 45 28 17
-13.854525566101074 -18.379158020019531 28.829986572265625 46 32 17
-13.576208114624023 -18.879158020019531 29.329986572265625 63 43 21
-13.470149993896484 -18.910123825073242 29.829986572265625 59 41 19
-12.970149993896484 -18.948068618774414 30.329986572265625 45 28 12
-12.470149993896484 -18.998752593994141 30.829986572265625 48 31 14
-10.970149993896484 -17.379158020019531 29.30305290222168 35 20 10
-11.050638198852539 -17.379158020019531 29.329986572265625 47 27 18
-11.470149993896484 -17.879158020019531 29.698694229125977 33 23 12
-11.470149993896484 -18.000665664672852 29.829986572265625 32 22 9
-11.210464477539063 -18.379158020019531 30.329986572265625 56 39 20
-11.470149993896484 -18.379158020019531 30.765903472900391 56 36 19
-11.970149993896484 -18.379158020019531 30.583534240722656 45 28 12
-11.970149993896484 -18.692865371704102 30.829986572265625 62 42 20
